-0.235204 0.1069109 1.169
-0.2352249 -0.2352249 2.4330001
-0.2352249 -0.25217801 2.4330001
-0.2352249 -0.26913121 2.4330001
-0.2354679 -0.017062889 1.306
-0.2357666 0.001096589 1.2589999
-0.2357989 0.02643485 1.214
-0.2357989 0.068730608 1.214
-0.2357989 0.085648917 1.214
-0.23622049 0.1386719 1.098
-0.23623259 0.42670289 1.42
-0.23624741 0.45706159 1.363
-0.2363694 0.2751933 1.311
-0.2363694 0.4761644 1.311
-0.2365157 0.2915194 1.263
-0.2365392 -0.1413285 1.7079999
-0.2365758 0.077444099 1.2180001
-0.2365758 0.31508079 1.2180001
-0.23680399 -0.1006772 1.628
-0.2368136 0.33728001 1.177
-0.2376184 0.33019701 1.181
-0.2376184 0.3466554 1.181
-0.237729 0.1203565 1.142
-0.2381541 0.45117629 1.374
-0.23817229 -0.026463591 1.321
-0.23817229 0.26808769 1.321
-0.2383239 0.01816819 1.227
-0.2385408 0.15060811 1.074
-0.2391374 -0.0077858688 1.277
-0.2391374 0.28585261 1.277
-0.239228 0.1004551 1.189
-0.23923241 0.13269161 1.112
-0.2392951 0.31011781 1.232
-0.2393813 0.1683861 1.045
-0.2400189 0.1134817 1.153
-0.2400607 0.44513759 1.385
-0.2400685 0.161567 1.048
-0.2400685 0.1761719 1.048
-0.2400737 0.4924303 1.2819999
-0.2401495 -0.1136037 1.651
-0.24015559 0.26103869 1.332
-0.24015559 0.4745104 1.332
-0.24075571 0.1839996 1.051
-0.2407618 0.1444571 1.084
-0.2408376 0.092790253 1.197
-0.2408376 0.3263298 1.197
-0.2408489 0.0097203609 1.24
-0.2408489 0.30349129 1.24
-0.2410101 0.48538309 1.2869999
-0.2410571 -0.036100339 1.337
-0.2410571 0.46697539 1.337
-0.2412888 -0.075833619 1.5829999
-0.2414429 0.19186909 1.054
-0.2414429 0.1992134 1.054
-0.2415989 0.1261792 1.123
-0.24196731 0.43894571 1.396
-0.24264839 0.034664061 1.206
-0.24264839 0.04306747 1.206
-0.24286009 0.4610821 1.347
-0.2428827 0.28129211 1.2970001
-0.24304651 0.1561781 1.061
-0.2434227 -0.087632187 1.597
-0.2434532 0.051641591 1.21
-0.2434532 0.3214426 1.21
-0.2435682 0.29817989 1.2539999
-0.2436318 -0.01699757 1.301
-0.2436318 0.48159769 1.301
-0.2438713 0.1386719 1.098
-0.24404719 0.43290791 1.408
-0.2441822 0.1072767 1.173
-0.244258 0.02643485 1.214
-0.244258 0.060271461 1.214
-0.244258 0.085648917 1.214
-0.244258 0.314046 1.214
-0.24456809 -0.026163099 1.306
-0.24456809 0.27414379 1.306
-0.24456809 0.4743484 1.306
-0.2448041 -0.12753271 1.683
-0.24501491 0.33728001 1.177
-0.24501491 0.34548131 1.177
-0.2450628 0.068957083 1.2180001
-0.2453163 0.001100073 1.263
-0.2453163 0.2915194 1.263
-0.2456865 0.1203565 1.142
-0.2457187 0.1677416 1.041
-0.24574479 0.45706159 1.363
-0.2458476 0.33019701 1.181
-0.2460244 0.15060811 1.074
-0.24606881 0.077762023 1.223
-0.2461272 0.42670289 1.42
-0.24658009 -0.2673448 2.98
-0.24658009 -0.28810939 2.98
-0.2466628 0.1611045 1.045
-0.2466628 0.1756676 1.045
-0.2468736 0.01816819 1.227
-0.2469285 -0.1001824 1.62
-0.2469808 0.13269161 1.112
-0.2471924 0.113088 1.149
-0.2472769 -0.1406665 1.7
-0.247371 0.18347441 1.048
-0.247371 0.1907769 1.048
-0.2473771 0.26808769 1.321
-0.2473771 0.47059181 1.321
-0.247513 0.1004551 1.189
-0.24772809 0.45117629 1.374
-0.2478797 0.31011781 1.232
-0.24803559 -0.0077858688 1.277
-0.24803559 0.28585261 1.277
-0.24803559 0.49050969 1.277
-0.24807911 0.1986464 1.051
-0.2483456 0.3252393 1.193
-0.2485007 0.26005891 1.327
-0.2492315 0.14499021 1.0880001
-0.249424 0.1261792 1.123
-0.249437 0.465229 1.332
-0.24948931 0.0097203609 1.24
-0.24948931 0.30349129 1.24
-0.2494954 0.1555894 1.057
-0.24971139 0.44513759 1.385
-0.2499779 0.48538309 1.2869999
-0.250011 0.093100317 1.201
-0.25104401 -0.075450383 1.575
-0.25105181 0.034664061 1.206
-0.25105181 0.32037991 1.206
-0.25152221 0.1386719 1.098
-0.2516537 -0.1136037 1.651
-0.25169459 0.43894571 1.396
-0.25188449 0.043210309 1.21
-0.25192019 -0.01694531 1.2970001
-0.25192019 0.28129211 1.2970001
-0.25224599 0.4610821 1.347
-0.25230601 0.29817989 1.2539999
-0.25269711 0.48159769 1.301
-0.2527172 0.02643485 1.214
-0.2527172 0.05181231 1.214
-0.25275549 0.119935 1.138
-0.2527999 0.1501874 1.071
-0.25297239 0.16048791 1.041
-0.25297239 0.1677416 1.041
-0.25297239 0.1749952 1.041
-0.2532163 0.1076425 1.177
-0.2532163 0.33728001 1.177
-0.2532163 0.34548131 1.177
-0.2535499 0.060470048 1.2180001
-0.2535499 0.08593113 1.2180001
-0.2535499 0.31508079 1.2180001
-0.25366831 0.27414379 1.306
-0.25385821 0.43290791 1.408
-0.25407681 0.33019701 1.181
-0.25411689 0.001100073 1.263
-0.25411689 0.2915194 1.263
-0.2543059 0.455385 1.358
-0.25463951 0.4761644 1.311
-0.25467351 0.18347441 1.048
-0.25472921 0.13269161 1.112
-0.2551229 0.4870528 1.268
-0.25540251 0.191323 1.051
-0.25540251 0.1986464 1.051
-0.2554234 0.01816819 1.227
-0.2554234 0.069466613 1.227
-0.2554234 0.078016348 1.227
-0.25579789 0.1004551 1.189
-0.25582579 -0.088071167 1.605
-0.25586849 0.1444571 1.084
-0.25608709 0.1134817 1.153
-0.25636581 0.44953439 1.369
-0.25646421 0.31011781 1.232
-0.25658181 0.26808769 1.321
-0.25665841 0.3252393 1.193
-0.25686061 0.1555894 1.057
-0.2569232 0.4282054 1.425
-0.25693369 -0.0077858688 1.277
-0.25693369 0.28585261 1.277
-0.257249 0.1261792 1.123
-0.2577472 0.47272921 1.327
-0.2579031 -0.1282147 1.692
-0.2581296 0.30349129 1.24
-0.2582289 0.1381667 1.094
-0.25842571 0.44353059 1.38
-0.25852501 -0.063616097 1.554
-0.2587184 0.26103869 1.332
-0.2587184 0.465229 1.332
-0.2589457 0.48538309 1.2869999
-0.25912249 -0.1406665 1.7
-0.25917041 0.0097595556 1.245
-0.25929061 0.14962649 1.067
-0.2594552 0.093487918 1.206
-0.2594918 -0.1006772 1.628
-0.25995171 0.28020769 1.2920001
-0.2602261 0.1677416 1.041
-0.26031581 0.034779031 1.21
-0.26048559 0.43737349 1.391
-0.26068509 0.119935 1.138
-0.26104391 0.29817989 1.2539999
-0.26117629 0.02643485 1.214
-0.26117629 0.043353159 1.214
-0.26117629 0.32250521 1.214
-0.261226 0.1611045 1.045
-0.261226 0.1756676 1.045
-0.2614176 0.1076425 1.177
-0.26163191 0.4610821 1.347
-0.2617625 0.48159769 1.301
-0.2617695 0.1323337 1.109
-0.26197591 0.18347441 1.048
-0.26201859 -0.075450383 1.575
-0.26203689 0.051983029 1.2180001
-0.26203689 0.08593113 1.2180001
-0.26203689 0.31508079 1.2180001
-0.262306 0.33019701 1.181
-0.262306 0.3384262 1.181
-0.262306 0.3466554 1.181
-0.2625455 0.43106309 1.402
-0.26269269 0.1440573 1.081
-0.2627258 0.191323 1.051
-0.2627258 0.1986464 1.051
-0.26276851 0.27414379 1.306
-0.26291749 0.001100073 1.263
-0.26291749 0.2915194 1.263
-0.2631126 0.060718291 1.223
-0.26319441 0.1001171 1.1849999
-0.2637684 0.455385 1.358
-0.26397309 0.01816819 1.227
-0.26397309 0.069466613 1.227
-0.2641212 0.1134817 1.153
-0.26412991 0.12572969 1.119
-0.26422569 0.1555894 1.057
-0.264433 -0.1141541 1.659
-0.26478049 0.47798041 1.316
-0.26497129 0.3252393 1.193
-0.2650488 0.078334257 1.232
-0.2650488 0.31011781 1.232
-0.26567861 -0.087632187 1.597
-0.2658318 0.28585261 1.277
-0.2658318 0.49050969 1.277
-0.26585191 0.1381667 1.094
-0.26590499 0.44953439 1.369
-0.26591629 0.42670289 1.42
-0.26672551 0.14962649 1.067
-0.2667481 0.093100317 1.201
-0.26699379 0.26930541 1.327
-0.26699379 0.47272921 1.327
-0.26747981 0.1677416 1.041
-0.26778641 0.1069109 1.169
-0.2678456 0.0097595556 1.245
-0.2678456 0.30471501 1.245
-0.26791349 0.48538309 1.2869999
-0.2679998 0.26103869 1.332
-0.2679998 0.465229 1.332
-0.26804161 0.44353059 1.38
-0.26813999 -0.052550051 1.5470001
-0.26850751 0.1611045 1.045
-0.26850751 0.1756676 1.045
-0.26861471 0.119935 1.138
-0.2687026 0.34430721 1.173
-0.2689544 0.28020769 1.2920001
-0.26927841 0.18347441 1.048
-0.2693533 -0.063616097 1.554
-0.26961899 0.33728001 1.177
-0.2696355 0.034894001 1.214
-0.2696355 0.32250521 1.214
-0.26969299 -0.1282147 1.692
-0.2697818 0.001092234 1.2539999
-0.27004921 0.191323 1.051
-0.27004921 0.1986464 1.051
-0.27017811 0.43737349 1.391
-0.270226 0.13269161 1.112
-0.27052391 0.026521949 1.2180001
-0.27052391 0.043496009 1.2180001
-0.27052391 0.051983029 1.2180001
-0.27052391 0.08593113 1.2180001
-0.2705352 0.099779151 1.181
-0.2705352 0.33019701 1.181
-0.27082789 0.48159769 1.301
-0.27085751 0.2993688 1.2589999
-0.27097511 0.1444571 1.084
-0.27101779 0.4610821 1.347
-0.27121109 0.113088 1.149
-0.27159089 0.1555894 1.057
-0.27163449 0.060718291 1.223
-0.27163449 0.31637421 1.223
-0.27200031 -0.10111 1.635
-0.27224329 -0.1413285 1.7079999
-0.2723147 0.43106309 1.402
-0.27236781 0.3241488 1.189
-0.2725229 0.01816819 1.227
-0.27279371 0.29267341 1.268
-0.27289921 0.1261792 1.123
-0.27290961 0.2751933 1.311
-0.27299321 -0.075450383 1.575
-0.273231 0.455385 1.358
-0.27347481 0.1381667 1.094
-0.27363339 0.069749683 1.232
-0.27363339 0.078334257 1.232
-0.27363339 0.31011781 1.232
-0.2739504 0.47798041 1.316
-0.27420041 0.092790253 1.197
-0.2745218 0.0096890042 1.2359999
-0.27472991 0.28585261 1.277
-0.27473351 0.1677416 1.041
-0.27498779 0.1065451 1.165
-0.2749913 0.47059181 1.321
-0.27518809 0.1501874 1.071
-0.2753135 -0.051870659 1.527
-0.27544421 0.44953439 1.369
-0.27578911 0.1756676 1.045
-0.27580571 0.4924303 1.2819999
-0.2758109 0.42670289 1.42
-0.27621761 -0.25631011 2.8570001
-0.27624029 0.26930541 1.327
-0.27626199 0.32037991 1.206
-0.27645019 0.4416022 1.374
-0.27652079 0.30471501 1.245
-0.2765443 0.119935 1.138
-0.27658081 0.161567 1.048
-0.27658081 0.18347441 1.048
-0.27680641 -0.087632187 1.597
-0.27687609 0.34430721 1.173
-0.27688131 0.48538309 1.2869999
-0.27717829 0.085366718 1.21
-0.27728111 0.26103869 1.332
-0.27732381 -0.1147046 1.6670001
-0.2773726 0.191323 1.051
-0.2773726 0.1986464 1.051
-0.27765739 -0.063042983 1.54
-0.27775761 0.1440573 1.081
-0.27782029 0.33728001 1.177
-0.27795711 0.28020769 1.2920001
-0.2779744 0.13269161 1.112
-0.27809459 0.02643485 1.214
-0.27809459 0.034894001 1.214
-0.27809459 0.314046 1.214
-0.27832201 0.46697539 1.337
-0.2787644 0.099779151 1.181
-0.2787644 0.33019701 1.181
-0.27895609 0.1555894 1.057
-0.27901101 0.018034929 1.2180001
-0.27901101 0.043496009 1.2180001
-0.27901101 0.051983029 1.2180001
-0.27903271 0.48011699 1.2970001
-0.27921739 0.113088 1.149
-0.2795867 -0.040312499 1.493
-0.27963021 0.2993688 1.2589999
-0.2798706 0.43737349 1.391
-0.28015631 0.060718291 1.223
-0.2804037 0.4610821 1.347
-0.28065279 0.3241488 1.189
-0.2807242 0.1261792 1.123
-0.28107259 0.069466613 1.227
-0.28107259 0.078016348 1.227
-0.28107259 0.3088592 1.227
-0.2810978 0.1381667 1.094
-0.28148279 -0.1282147 1.692
-0.28162909 0.29267341 1.268
-0.2819871 0.1677416 1.041
-0.28204459 0.2751933 1.311
-0.28204459 0.4761644 1.311
-0.28208381 0.43106309 1.402
-0.2825411 0.092790253 1.197
-0.2826508 0.1501874 1.071
-0.28270569 -0.07511504 1.568
-0.28307071 0.1611045 1.045
-0.28307071 0.1756676 1.045
-0.28333199 -0.0513951 1.513
-0.28339291 -0.10111 1.635
-0.28362811 0.28585261 1.277
-0.28362811 0.49050969 1.277
-0.28373441 0.45706159 1.363
-0.2838833 0.18347441 1.048
-0.28405049 0.30349129 1.24
-0.2840775 0.1069109 1.169
-0.28414461 -0.1413285 1.7079999
-0.28419599 0.26808769 1.321
-0.2844739 0.119935 1.138
-0.2846655 0.32037991 1.206
-0.28469601 0.191323 1.051
-0.28495201 0.1323337 1.109
-0.28504959 0.33613369 1.173
-0.28529 0.1440573 1.081
-0.28548679 0.47272921 1.327
-0.2855086 0.1992134 1.054
-0.2856096 0.085366718 1.21
-0.28570539 0.42670289 1.42
-0.28602159 0.34548131 1.177
-0.28602421 0.45117629 1.374
-0.28611219 0.29699099 1.249
-0.2862995 -0.02952864 1.474
-0.28632131 0.1555894 1.057
-0.2865538 0.02643485 1.214
-0.2865538 0.034894001 1.214
-0.2865538 0.314046 1.214
-0.2865625 0.26103869 1.332
-0.28695971 0.28020769 1.2920001
-0.28695971 0.48726881 1.2920001
-0.28699371 0.099779151 1.181
-0.28699371 0.33019701 1.181
-0.28707731 -0.062756427 1.533
-0.28722361 0.113088 1.149
-0.28727329 0.44353059 1.38
-0.28763819 0.46697539 1.337
-0.2879343 -0.087632187 1.597
-0.2884073 0.1672581 1.038
-0.28854921 0.1261792 1.123
-0.2886782 0.043674558 1.223
-0.2886782 0.052196421 1.223
-0.28872079 0.1381667 1.094
-0.28893769 0.3241488 1.189
-0.28893951 -0.1147046 1.6670001
-0.28924081 0.16048791 1.041
-0.28924081 0.1749952 1.041
-0.28931919 0.2915194 1.263
-0.28962231 0.3088592 1.227
-0.28978959 0.4610821 1.347
-0.28998989 -0.040312499 1.493
-0.2900691 0.27414379 1.306
-0.2900691 0.48344859 1.306
-0.2901136 0.1501874 1.071
-0.290333 -0.018852791 1.443
-0.2903522 0.1829492 1.045
-0.290604 0.43894571 1.396
-0.29080251 0.078334257 1.232
-0.29088181 0.092790253 1.197
-0.29117969 0.4761644 1.311
-0.2911858 0.1907769 1.048
-0.2911858 0.2053818 1.048
-0.29160991 0.48897329 1.273
-0.29174671 0.3025122 1.2359999
-0.29201931 0.15470619 1.051
-0.29201931 0.1986464 1.051
-0.2921561 0.455385 1.358
-0.29222319 0.1069109 1.169
-0.2924034 0.119935 1.138
-0.29252619 0.28585261 1.277
-0.29267949 0.1323337 1.109
-0.29282239 0.1440573 1.081
-0.29306889 0.32037991 1.206
-0.293102 0.43290791 1.408
-0.29322311 0.34430721 1.173
-0.2932727 -0.1282147 1.692
-0.2934007 0.26808769 1.321
-0.29352361 -0.1006772 1.628
-0.29363149 -0.07511504 1.568
-0.29387099 0.06181052 1.245
-0.29387099 0.070485681 1.245
-0.29387459 -0.0513951 1.513
-0.2941559 -0.029288249 1.462
-0.29422301 0.33728001 1.177
-0.29473341 0.26005891 1.327
-0.29473341 0.47272921 1.327
-0.29481521 0.29699099 1.249
-0.294817 0.27912331 1.2869999
-0.294817 0.48538309 1.2869999
-0.29501301 0.085648917 1.214
-0.29501301 0.314046 1.214
-0.29522279 0.099779151 1.181
-0.29522279 0.33019701 1.181
-0.29522991 0.113088 1.149
-0.29559821 0.45117629 1.374
-0.2956 0.42670289 1.42
-0.29564011 0.1672581 1.038
-0.29604599 -0.1413285 1.7079999
-0.29637429 0.1261792 1.123
-0.29646489 0.14962649 1.067
-0.29649451 0.1749952 1.041
-0.2968891 0.44353059 1.38
-0.29742739 0.1386719 1.098
-0.2976338 0.1611045 1.045
-0.2976338 0.1829492 1.045
-0.2976338 0.2047939 1.045
-0.29767039 -0.1136037 1.651
-0.29775921 -0.062756427 1.533
-0.298024 0.27309421 1.301
-0.298024 0.48159769 1.301
-0.29806489 0.46872169 1.342
-0.29811981 0.2915194 1.263
-0.29817209 0.3088592 1.227
-0.2982226 0.3252393 1.193
-0.2983132 0.1061793 1.161
-0.2984882 0.1907769 1.048
-0.2984882 0.1980793 1.048
-0.2986128 -0.2584632 2.881
-0.29906219 -0.087632187 1.597
-0.2991389 -0.0087613892 1.437
-0.29916939 0.4743484 1.306
-0.29924339 0.1435243 1.077
-0.2993235 0.1318564 1.105
-0.29934269 0.15470619 1.051
-0.3002224 0.093100317 1.201
-0.30033129 0.43894571 1.396
-0.30033299 0.119935 1.138
-0.3003591 0.07858859 1.2359999
-0.3003591 0.3025122 1.2359999
-0.3003931 -0.040312499 1.493
-0.30048019 0.28495729 1.273
-0.30050811 0.46313599 1.353
-0.30056041 -0.13280571 1.605
-0.30139649 0.33613369 1.173
-0.30139649 0.34430721 1.173
-0.30142441 0.49050969 1.277
-0.30146009 0.26707301 1.316
-0.30146009 0.46881059 1.316
-0.30147231 0.32037991 1.206
-0.30161861 0.455385 1.358
-0.30199751 -0.1269265 1.675
-0.30242431 0.35368261 1.177
-0.3028729 0.1672581 1.038
-0.30291289 0.43290791 1.408
-0.30309409 -0.01902264 1.456
-0.3032361 0.113088 1.149
-0.30336931 -0.1001824 1.62
-0.30336931 -0.14533509 1.62
-0.30345199 0.099779151 1.181
-0.30345199 0.33019701 1.181
-0.3034721 0.085648917 1.214
-0.3034721 0.314046 1.214
-0.30351821 0.070712127 1.249
-0.3036916 -0.2832754 2.9300001
-0.30374819 0.1749952 1.041
-0.30378479 0.27912331 1.2869999
-0.30378479 0.48538309 1.2869999
-0.30389979 0.14962649 1.067
-0.30396679 0.1381667 1.094
-0.3039799 0.26005891 1.327
-0.3041994 0.1261792 1.123
-0.30420369 0.4249 1.414
-0.3044171 -0.0513951 1.513
-0.30455741 -0.07511504 1.568
-0.30473331 0.29817989 1.2539999
-0.30491531 0.1611045 1.045
-0.30491531 0.1829492 1.045
-0.3051253 0.465229 1.332
-0.30517229 0.45117629 1.374
-0.3055076 0.3241488 1.189
-0.30559209 -0.029408449 1.4680001
-0.30579069 0.1907769 1.048
-0.30579069 0.1980793 1.048
-0.30579069 0.2053818 1.048
-0.30591169 0.13137899 1.101
-0.30672181 0.078016348 1.227
-0.30672181 0.3088592 1.227
-0.30692041 0.062704161 1.263
-0.30692041 0.2915194 1.263
-0.30708939 0.27309421 1.301
-0.30708939 0.48159769 1.301
-0.30741599 0.4593707 1.342
-0.3075414 0.15514781 1.054
-0.30756319 0.092790253 1.197
-0.3076154 0.44513759 1.385
-0.30786109 -0.0087248078 1.431
-0.3078872 0.1440573 1.081
-0.30826259 0.119935 1.138
-0.30826959 0.4743484 1.306
-0.3085143 0.1069109 1.169
-0.30897161 0.3025122 1.2359999
-0.30917451 -0.1136037 1.651
-0.30935049 0.48897329 1.273
-0.30957001 0.34430721 1.173
-0.30984959 -0.063042983 1.54
-0.3098757 0.32037991 1.206
-0.30993581 0.45370829 1.353
-0.31005859 0.43894571 1.396
-0.31010559 0.1672581 1.038
-0.31019011 -0.087632187 1.597
-0.31032249 0.05450109 1.277
-0.31032249 0.28585261 1.277
-0.31062561 0.33728001 1.177
-0.31062999 0.26707301 1.316
-0.31062999 0.46881059 1.316
-0.31079629 -0.040312499 1.493
-0.3110019 0.1749952 1.041
-0.31124231 0.113088 1.149
-0.31133461 0.14962649 1.067
-0.3115375 0.48349729 1.2819999
-0.31158981 0.1381667 1.094
-0.3116813 0.099779151 1.181
-0.3116813 0.33019701 1.181
-0.31173351 -0.01893119 1.449
-0.311744 -0.1439894 1.605
-0.31193131 0.085648917 1.214
-0.31193131 0.314046 1.214
-0.31202441 0.1261792 1.123
-0.31219691 0.1611045 1.045
-0.31219691 0.1829492 1.045
-0.31222129 0.070712127 1.249
-0.31222129 0.29699099 1.249
-0.3122265 0.4475643 1.363
-0.3127239 0.001226368 1.408
-0.3127239 0.43290791 1.408
-0.3127526 0.27912331 1.2869999
-0.31309319 0.1907769 1.048
-0.31309319 0.1980793 1.048
-0.31310359 -0.1333849 1.612
-0.3132264 0.26005891 1.327
-0.3132264 0.46348259 1.327
-0.31366891 -0.1269265 1.675
-0.3139894 0.20596971 1.051
-0.31405649 0.4249 1.414
-0.31436741 -0.31436741 3.033
-0.31465751 -0.1001824 1.62
-0.31472281 0.1318564 1.105
-0.31484821 0.3252393 1.193
-0.31488571 0.15514781 1.054
-0.3149597 -0.0513951 1.513
-0.31518269 0.27225459 1.2970001
-0.31518269 0.48011699 1.2970001
-0.3152715 0.3088592 1.227
-0.31541961 0.1440573 1.081
-0.31548321 -0.07511504 1.568
-0.31572101 0.062704161 1.263
-0.31572101 0.2915194 1.263
-0.3159039 0.092790253 1.197
-0.3161208 0.44353059 1.38
-0.31615469 0.04646001 1.301
-0.31619221 0.119935 1.138
-0.31649971 -0.0086882254 1.425
-0.3165563 0.078334257 1.232
-0.3166599 0.1069109 1.169
-0.3166599 0.34313309 1.169
-0.31676701 0.4593707 1.342
-0.31726611 0.01085702 1.385
-0.31733841 0.1672581 1.038
-0.31733841 0.1744909 1.038
-0.31736979 0.4743484 1.306
-0.31785581 0.12539271 1.1160001
-0.31794721 0.45169619 1.347
-0.31813711 0.1126943 1.145
-0.31822079 0.48897329 1.273
-0.31827909 0.32037991 1.206
-0.31833741 0.1377878 1.091
-0.3186118 0.30349129 1.24
-0.31861791 -0.029668881 1.4809999
-0.31864059 0.43737349 1.391
-0.31876951 0.14962649 1.067
-0.318827 0.33728001 1.177
-0.3192206 0.28585261 1.277
-0.31947851 0.1611045 1.045
-0.31947851 0.1829492 1.045
-0.31978589 0.001215916 1.396
-0.3197999 0.037825789 1.316
-0.3197999 0.26707301 1.316
-0.31989649 0.070485681 1.245
-0.31990871 -0.1334032 1.487
-0.3199105 0.099779151 1.181
-0.3199105 0.33019701 1.181
-0.3203904 0.085648917 1.214
-0.32039559 0.1907769 1.048
-0.32039559 0.1980793 1.048
-0.32047051 0.054714479 1.2819999
-0.32047051 0.48349729 1.2819999
-0.32049751 -0.018852791 1.443
-0.32049751 -0.1495655 1.443
-0.32049751 -0.1596203 1.443
-0.3205803 -0.063042983 1.54
-0.32067871 -0.1136037 1.651
-0.32092431 0.29699099 1.249
-0.32101491 0.47059181 1.321
-0.32116029 0.43106309 1.402
-0.32131279 0.20596971 1.051
-0.321318 -0.087632187 1.597
-0.32134241 -0.2606163 2.905
-0.32144609 0.31508079 1.2180001
-0.32172039 0.27912331 1.2869999
-0.32172391 0.020181941 1.363
-0.32172391 0.4475643 1.363
-0.32184321 0.1190918 1.13
-0.32223001 0.15514781 1.054
-0.32247299 0.26005891 1.327
-0.3225348 -0.22442541 1.408
-0.3225348 -0.2342363 1.408
-0.32258269 0.1061793 1.161
-0.32270551 -0.040501501 1.5
-0.32316101 0.3252393 1.193
-0.32358959 0.1323337 1.109
-0.3236331 0.16677471 1.035
-0.323688 0.465229 1.332
-0.32382131 0.3088592 1.227
-0.32384831 0.1444571 1.084
-0.32390931 -0.19582351 1.414
-0.32390931 0.4249 1.414
-0.32422021 0.48011699 1.2970001
-0.32424459 0.092790253 1.197
-0.32452151 0.2915194 1.263
-0.32457119 0.1744909 1.038
-0.32471749 -0.1413476 1.462
-0.3248055 0.34313309 1.169
-0.3251408 0.078334257 1.232
-0.32522011 0.04646001 1.301
-0.32522011 0.27309421 1.301
-0.32528371 -0.0086577404 1.42
-0.32532811 0.31905171 1.201
-0.3254492 -0.2108255 2.3499999
-0.3254492 -0.2272003 2.3499999
-0.32550231 -0.0513951 1.513
-0.32573661 0.44353059 1.38
-0.3257688 -0.34766921 3.1429999
-0.3257688 -0.36956969 3.1429999
-0.32580629 0.062952399 1.268
-0.32591689 0.33613369 1.173
-0.32593951 0.1377878 1.091
-0.32594559 -0.1001824 1.62
-0.32605019 -0.1316987 1.4680001
-0.32611811 0.029222051 1.342
-0.32611811 0.4593707 1.342
-0.3262043 0.14962649 1.067
-0.32640901 -0.07511504 1.568
-0.32642901 -0.2172056 1.425
-0.32650739 0.12572969 1.119
-0.32675999 0.1611045 1.045
-0.32675999 0.1829492 1.045
-0.32689419 -0.12753271 1.683
-0.32691681 0.01085702 1.385
-0.32700831 -0.06222425 1.52
-0.3270283 0.099441208 1.177
-0.3270283 0.32907861 1.177
-0.32709101 0.48897329 1.273
-0.32725209 0.30349129 1.24
-0.3272548 0.113088 1.149
-0.3273828 -0.02952864 1.474
-0.327665 -0.24523351 2.3659999
-0.327665 -0.26171979 2.3659999
-0.32769811 0.1907769 1.048
-0.32769811 0.1980793 1.048
-0.3277199 0.4761644 1.311
-0.327766 0.085366718 1.21
-0.32780349 -0.1782354 1.431
-0.32780349 -0.1882066 1.431
-0.32780349 -0.208149 1.431
-0.3281188 0.28585261 1.277
-0.32833311 0.43737349 1.391
-0.32863611 0.20596971 1.051
-0.3287912 0.45370829 1.353
-0.32884961 0.314046 1.214
-0.3289375 -0.08126691 1.4809999
-0.3289375 -0.091586523 1.4809999
-0.3289375 -0.1019061 1.4809999
-0.3289375 -0.1122257 1.4809999
-0.3289375 -0.1225453 1.4809999
-0.32896969 0.26707301 1.316
-0.32917789 -0.018774411 1.437
-0.32917789 -0.16896971 1.437
-0.32940349 0.054714479 1.2819999
-0.32951331 0.001215916 1.396
-0.3295742 0.15514781 1.054
-0.32962731 0.070712127 1.249
-0.32962731 0.29699099 1.249
-0.32963869 -0.28810939 2.98
-0.3300063 0.02010791 1.358
-0.33012211 0.1318564 1.105
-0.3302196 0.0379695 1.321
-0.3302196 0.258883 1.321
-0.33027011 -0.071234733 1.487
-0.3303625 0.3241488 1.189
-0.33048439 0.1440573 1.081
-0.33067259 0.1061793 1.161
-0.33068821 0.48538309 1.2869999
-0.330845 0.16677471 1.035
-0.330845 0.1739866 1.035
-0.33088419 0.1195134 1.1339999
-0.33092949 -0.2430073 1.402
-0.33092949 -0.25277641 1.402
-0.33092949 0.43106309 1.402
-0.33160281 -0.040312499 1.493
-0.33160281 -0.061118949 1.493
-0.33171949 0.47272921 1.327
-0.33180401 0.1817237 1.038
-0.33192679 -0.1501874 1.449
-0.33192679 -0.160284 1.449
-0.33197299 0.28020769 1.2920001
-0.33218291 -0.1136037 1.651
-0.33234581 -0.2342363 1.408
-0.332371 0.078016348 1.227
-0.332371 0.3088592 1.227
-0.33244589 -0.087632187 1.597
-0.3325853 0.092790253 1.197
-0.3325853 0.31798911 1.197
-0.3326602 -0.36453179 2.2869999
-0.3326793 0.44953439 1.369
-0.33276299 0.16048791 1.041
-0.3329511 0.34313309 1.169
-0.33315751 -0.0509535 1.5
-0.33332211 0.2915194 1.263
-0.33353031 -0.1407675 1.456
-0.3336392 0.14962649 1.067
-0.33376199 -0.2253817 1.414
-0.33376199 -0.26479271 1.414
-0.33376199 0.4249 1.414
-0.3338944 0.01077079 1.374
-0.3340416 0.1902308 1.045
-0.33409041 0.33613369 1.173
-0.33409381 0.1126943 1.145
-0.33421931 0.46697539 1.337
-0.3342855 0.04646001 1.301
-0.3342855 0.27309421 1.301
-0.3342855 0.48159769 1.301
-0.3343046 0.12572969 1.119
-0.3344588 0.1381667 1.094
-0.3346417 0.062952399 1.268
-0.33480889 0.3025122 1.2359999
-0.33490479 -0.13116039 1.462
-0.33498749 -0.35103479 2.303
-0.33500049 0.1542646 1.048
-0.33500049 0.1980793 1.048
-0.33500049 0.2053818 1.048
-0.3350859 0.085084513 1.206
-0.3351782 -0.0086577404 1.42
-0.3351782 -0.21644349 1.42
-0.33522969 0.099441208 1.177
-0.33522969 0.32907861 1.177
-0.33535239 0.44353059 1.38
-0.33546919 0.029222051 1.342
-0.33546919 0.4593707 1.342
-0.3355014 -0.31436741 3.033
-0.33596131 0.48897329 1.273
-0.33619729 0.31301129 1.21
-0.33627921 -0.029408449 1.4680001
-0.3363584 -0.19734681 1.425
-0.3363584 -0.2072762 1.425
-0.33676609 0.1435243 1.077
-0.33701691 0.28585261 1.277
-0.33707699 0.1662913 1.0319999
-0.33716929 -0.3210175 2.3180001
-0.33724689 0.070485681 1.245
-0.33733481 -0.07511504 1.568
-0.33765361 -0.1219661 1.474
-0.33777469 -0.1782354 1.431
-0.33777469 -0.1882066 1.431
-0.33782169 0.1318564 1.105
-0.3380256 0.43737349 1.391
-0.33805689 0.1739866 1.035
-0.33813971 0.47798041 1.316
-0.3382189 0.45370829 1.353
-0.33833039 0.29699099 1.249
-0.3383365 0.054714479 1.2819999
-0.33864751 0.3241488 1.189
-0.3387624 0.1061793 1.161
-0.33878589 0.1195134 1.1339999
-0.3388992 -0.1006772 1.628
-0.33903679 0.1600254 1.038
-0.3391909 -0.018774411 1.437
-0.3391909 -0.16896971 1.437
-0.33924061 0.001215916 1.396
-0.33924061 0.42921841 1.396
-0.33925709 -0.08126691 1.4809999
-0.33925709 -0.091586523 1.4809999
-0.33925709 -0.1019061 1.4809999
-0.33925709 -0.1122257 1.4809999
-0.3394244 0.0379695 1.321
-0.3394244 0.258883 1.321
-0.3394244 0.26808769 1.321
-0.3394244 0.47059181 1.321
-0.33946881 0.02010791 1.358
-0.3394967 -0.30697009 2.3340001
-0.3394967 -0.3394967 2.3340001
-0.33960289 -0.4482758 2.2279999
-0.339656 0.27912331 1.2869999
-0.339656 0.48538309 1.2869999
-0.33978671 0.092480168 1.193
-0.33980939 0.077762023 1.223
-0.33992961 0.341959 1.165
-0.3400166 0.18224891 1.041
-0.3401151 0.1492058 1.064
-0.34043211 -0.1282147 1.692
-0.3406072 -0.28027821 1.443
-0.3406316 -0.04015049 1.487
-0.3406316 -0.060873318 1.487
-0.34092069 0.3088592 1.227
-0.34096599 0.46348259 1.327
-0.34103921 0.06250558 1.2589999
-0.3410967 0.33498749 1.169
-0.34132311 0.1902308 1.045
-0.341824 -0.25995001 2.3499999
-0.341824 -0.27632481 2.3499999
-0.342006 -0.050715718 1.493
-0.342006 -0.071522184 1.493
-0.3420234 -0.14009079 1.449
-0.3420234 -0.1501874 1.449
-0.3420234 -0.160284 1.449
-0.34206519 0.31905171 1.201
-0.34207219 0.1126943 1.145
-0.34208179 0.1381667 1.094
-0.3421227 0.2915194 1.263
-0.34215671 -0.22442541 1.408
-0.34215671 -0.2342363 1.408
-0.34215671 -0.24404719 1.408
-0.34215671 -0.25385821 1.408
-0.34215671 0.42309701 1.408
-0.34221849 0.44953439 1.369
-0.3422952 0.27225459 1.2970001
-0.34230301 0.1980793 1.048
-0.34230301 0.2053818 1.048
-0.34328291 0.15470619 1.051
-0.34331161 0.14312451 1.074
-0.34332469 0.1261792 1.123
-0.3433508 0.04646001 1.301
-0.3433508 0.48159769 1.301
-0.3434214 0.3025122 1.2359999
-0.343431 0.32907861 1.177
-0.3434684 0.01077079 1.374
-0.34361479 -0.21552899 1.414
-0.34361479 -0.26479271 1.414
-0.34365129 -0.1413285 1.7079999
-0.3436757 -0.1306221 1.456
-0.34402329 -0.39120361 2.257
-0.34415129 -0.22874729 2.3659999
-0.34415129 -0.24523351 2.3659999
-0.34415129 -0.2946924 2.3659999
-0.34426799 0.1662913 1.0319999
-0.34452409 -0.26285911 2.9300001
-0.34459811 0.099779151 1.181
-0.3446286 0.085366718 1.21
-0.3448202 0.029222051 1.342
-0.3448202 0.4593707 1.342
-0.34496829 0.44353059 1.38
-0.34507281 -0.0086577404 1.42
-0.345092 -0.1209732 1.462
-0.34526879 0.1739866 1.035
-0.34529489 -0.088071167 1.605
-0.34535241 -0.1141541 1.659
-0.34576789 0.314046 1.214
-0.34591499 0.28585261 1.277
-0.34591499 0.49050969 1.277
-0.34592199 0.070485681 1.245
-0.34592199 0.29603979 1.245
-0.34626949 0.1600254 1.038
-0.34628779 -0.19734681 1.425
-0.34628779 -0.2072762 1.425
-0.3463096 -0.44129741 2.2720001
-0.34647861 -0.21369641 2.382
-0.3465082 -0.029408449 1.4680001
-0.3465082 -0.1112406 1.4680001
-0.34668759 0.1195134 1.1339999
-0.3467721 0.1323337 1.109
-0.34693241 0.3241488 1.189
-0.34726939 0.054714479 1.2819999
-0.34726939 0.27803889 1.2819999
-0.34727031 0.18224891 1.041
-0.34727031 0.1895026 1.041
-0.3472729 -0.1548446 1.726
-0.3473095 0.47798041 1.316
-0.34752899 0.1492058 1.064
-0.34764659 0.45370829 1.353
-0.34766921 -0.34766921 3.1429999
-0.34766921 -0.36956969 3.1429999
-0.347718 0.43737349 1.391
-0.3477459 -0.1682642 1.431
-0.3477459 -0.1782354 1.431
-0.3477459 -0.1882066 1.431
-0.34792441 -0.1014245 1.474
-0.34804729 0.1065451 1.165
-0.34804729 0.341959 1.165
-0.3480995 0.092480168 1.193
-0.34833121 0.077762023 1.223
-0.34860471 0.1975123 1.045
-0.34860471 0.2047939 1.045
-0.34862909 0.0379695 1.321
-0.34862909 0.26808769 1.321
-0.34862909 0.47059181 1.321
-0.34874579 0.1377878 1.091
-0.34893131 0.02010791 1.358
-0.34896791 -0.25169459 1.396
-0.34896791 0.42921841 1.396
-0.34920391 -0.1589566 1.437
-0.34920391 -0.27911279 1.437
-0.34926659 0.31798911 1.197
-0.3494705 0.3088592 1.227
-0.34957671 -0.08126691 1.4809999
-0.34957671 -0.091586523 1.4809999
-0.34981191 0.06250558 1.2589999
-0.34981191 0.2905961 1.2589999
-0.34989899 0.12572969 1.119
-0.3499783 0.046138618 1.2920001
-0.3499783 0.48726881 1.2920001
-0.3500506 0.1126943 1.145
-0.35021609 0.4475643 1.363
-0.35024309 -0.1006772 1.628
-0.35040331 -0.28810939 2.98
-0.35043731 0.33613369 1.173
-0.3504678 -0.2430073 1.402
-0.3504678 0.001221142 1.402
-0.3504678 0.421294 1.402
-0.35060629 0.15470619 1.051
-0.35066199 -0.018852791 1.443
-0.35066199 -0.1495655 1.443
-0.3507953 0.14312451 1.074
-0.35087711 -0.39508209 3.1719999
-0.35099301 -0.060873318 1.487
-0.35099301 -0.071234733 1.487
-0.35103479 -0.35103479 2.303
-0.35103479 -0.36708209 2.303
-0.35103479 -0.38312939 2.303
-0.35133269 0.48011699 1.2970001
-0.3515321 0.26103869 1.332
-0.3515321 0.465229 1.332
-0.3516323 0.32907861 1.177
-0.35189271 0.085084513 1.206
-0.3519676 -0.22442541 1.408
-0.3519676 -0.2342363 1.408
-0.3519676 -0.2636691 1.408
-0.35203379 0.3025122 1.2359999
-0.3521201 -0.14009079 1.449
-0.352222 -0.1282147 1.692
-0.35240921 -0.040312499 1.493
-0.35241619 0.27309421 1.301
-0.35248059 0.16677471 1.035
-0.35282731 0.099779151 1.181
-0.35289609 -0.49174049 2.214
-0.35304251 0.01077079 1.374
-0.35305989 0.31301129 1.21
-0.353221 0.1318564 1.105
-0.35332119 -0.27256209 2.3180001
-0.35346749 -0.21552899 1.414
-0.3535023 0.1744909 1.038
-0.3538211 -0.1204767 1.456
-0.3538211 -0.1306221 1.456
-0.35406151 -0.0509535 1.5
-0.35417131 0.029222051 1.342
-0.35452399 0.16048791 1.041
-0.35452399 0.18224891 1.041
-0.35452399 0.1895026 1.041
-0.3545841 0.44353059 1.38
-0.35458931 0.1195134 1.1339999
-0.35459721 0.070485681 1.245
-0.35459721 0.29603979 1.245
-0.35481319 0.28585261 1.277
-0.35481319 0.49050969 1.277
-0.35494211 0.1061793 1.161
-0.35496739 -0.19665439 1.42
-0.35496739 -0.206549 1.42
-0.3551276 -0.47932521 2.2279999
-0.3551276 -0.51037472 2.2279999
-0.3551276 -0.52589941 2.2279999
-0.3551912 -0.1136037 1.651
-0.35521731 0.3241488 1.189
-0.35527921 -0.029288249 1.462
-0.35527921 -0.110786 1.462
-0.35536799 0.137409 1.0880001
-0.3554908 0.4610821 1.347
-0.35555261 -0.1413285 1.7079999
-0.35576001 -0.25818011 2.3340001
-0.35576001 -0.30697009 2.3340001
-0.35576001 -0.3232334 2.3340001
-0.35576001 -0.3394967 2.3340001
-0.35588631 0.1975123 1.045
-0.35588631 0.2047939 1.045
-0.3559438 0.14962649 1.067
-0.35616499 0.341959 1.165
-0.35620239 0.054714479 1.2819999
-0.35620239 0.27803889 1.2819999
-0.35621721 -0.0086882254 1.425
-0.35621721 -0.1874174 1.425
-0.35641229 0.092480168 1.193
-0.35647941 0.037825789 1.316
-0.35647941 0.26707301 1.316
-0.35647941 0.46881059 1.316
-0.35647941 0.47798041 1.316
-0.35673729 0.12539271 1.1160001
-0.3568531 0.077762023 1.223
-0.3568531 0.30785239 1.223
-0.3573879 0.33498749 1.169
-0.35741049 -0.2411007 1.391
-0.35741049 -0.25079319 1.391
-0.35741049 0.43737349 1.391
-0.35751849 -0.46692309 2.243
-0.35759169 0.48538309 1.2869999
-0.35760739 0.31798911 1.197
-0.3577171 -0.1682642 1.431
-0.3577171 -0.1782354 1.431
-0.35802889 0.1126943 1.145
-0.3581953 -0.08088281 1.474
-0.3581953 -0.091153637 1.474
-0.3581953 -0.1014245 1.474
-0.3581987 -0.2272003 2.3499999
-0.3581987 -0.2435752 2.3499999
-0.3581987 -0.29269949 2.3499999
-0.3582789 0.14312451 1.074
-0.35839391 0.455385 1.358
-0.3589513 0.15514781 1.054
-0.35898101 0.046138618 1.2920001
-0.35921699 -0.1589566 1.437
-0.3594591 0.46348259 1.327
-0.35969251 0.16677471 1.035
-0.35969251 0.1739866 1.035
-0.35971349 0.020181941 1.363
-0.3597239 0.062704161 1.263
-0.3597239 0.2915194 1.263
-0.35975 -0.37547681 2.257
-0.35975 -0.39120361 2.257
-0.35975 -0.40693039 2.257
-0.35975 -0.4226571 2.257
-0.35975 -0.45411071 2.257
-0.35983369 0.32907861 1.177
-0.36023691 -0.2332381 1.402
-0.36023691 0.001221142 1.402
-0.36023691 0.43106309 1.402
-0.36037019 0.27225459 1.2970001
-0.36037019 0.48011699 1.2970001
-0.36063761 -0.21226101 2.3659999
-0.36064619 0.3025122 1.2359999
-0.36071679 -0.1495655 1.443
-0.36071679 -0.28027821 1.443
-0.3608135 0.26103869 1.332
-0.36092061 0.1318564 1.105
-0.36094329 -0.47462621 3.263
-0.3609651 -0.1555623 1.734
-0.36105651 0.099779151 1.181
-0.36129689 0.44953439 1.369
-0.36135441 -0.060873318 1.487
-0.36135441 -0.071234733 1.487
-0.36149111 0.085366718 1.21
-0.36149111 0.31301129 1.21
-0.36177769 0.18224891 1.041
-0.36177859 -0.21461441 1.408
-0.36177859 -0.22442541 1.408
-0.3620756 -0.1392598 1.683
-0.36214089 -0.3463096 2.2720001
-0.36214089 -0.36214089 2.2720001
-0.36214089 -0.44129741 2.2720001
-0.36216789 0.029113179 1.337
-0.36216789 0.4576591 1.337
-0.36221671 -0.01893119 1.449
-0.36221671 -0.12999409 1.449
-0.36221671 -0.14009079 1.449
-0.36249101 0.1195134 1.1339999
-0.3625721 0.28495729 1.273
-0.3625721 0.48897329 1.273
-0.36281249 -0.040312499 1.493
-0.36281249 -0.050715718 1.493
-0.36294919 0.137409 1.0880001
-0.3629849 -0.3199645 3.0869999
-0.36303201 0.1061793 1.161
-0.36307639 -0.4294675 2.382
-0.36307639 -0.44606531 2.382
-0.36316779 0.1611045 1.045
-0.36316779 0.1902308 1.045
-0.36316779 0.1975123 1.045
-0.3632724 0.070485681 1.245
-0.3632724 0.29603979 1.245
-0.36332029 -0.19582351 1.414
-0.36332029 -0.2056762 1.414
-0.36332029 -0.26479271 1.414
-0.36337861 0.14962649 1.067
-0.36350229 0.3241488 1.189
-0.36366519 -0.48552161 2.1860001
-0.36366519 -0.50075358 2.1860001
-0.3637113 0.05450109 1.277
-0.36396649 -0.1204767 1.456
-0.36401179 -0.1282147 1.692
-0.36419991 0.01081782 1.38
-0.36419991 0.44353059 1.38
-0.3642104 0.2053818 1.048
-0.36425999 0.4761644 1.311
-0.36453179 -0.31672439 2.2869999
-0.36453179 -0.3326602 2.2869999
-0.3647252 0.092480168 1.193
-0.36494029 -0.26285911 2.9300001
-0.3651354 0.27803889 1.2819999
-0.3651354 0.48349729 1.2819999
-0.36537501 0.077762023 1.223
-0.36537501 0.30785239 1.223
-0.36546639 -0.029288249 1.462
-0.36546639 -0.110786 1.462
-0.36546639 -0.2941559 1.462
-0.36549339 0.12572969 1.119
-0.3655335 0.33498749 1.169
-0.3655335 0.34313309 1.169
-0.36564931 0.037825789 1.316
-0.36564931 0.26707301 1.316
-0.36599419 -0.51929033 2.2
-0.3660073 0.1126943 1.145
-0.36614671 -0.0086882254 1.425
-0.36614671 -0.177488 1.425
-0.36614671 -0.1874174 1.425
-0.36629561 0.15514781 1.054
-0.36650199 0.02003387 1.353
-0.36650199 0.45370829 1.353
-0.36654899 -0.3471292 2.7869999
-0.36654899 -0.36654899 2.7869999
-0.36654899 -0.40538871 2.7869999
-0.36690441 0.16677471 1.035
-0.36690441 0.1739866 1.035
-0.36696631 -0.080553569 1.4680001
-0.36696631 -0.090782598 1.4680001
-0.36696631 -0.1010116 1.4680001
-0.36703849 0.47059181 1.321
-0.36708209 -0.254751 2.303
-0.36708209 -0.2707983 2.303
-0.36708209 -0.28684559 2.303
-0.36708209 -0.30289289 2.303
-0.36710301 -0.2411007 1.391
-0.36710301 -0.25079319 1.391
-0.36710301 0.43737349 1.391
-0.3671709 0.31905171 1.201
-0.36728591 0.13137899 1.101
-0.36735731 0.2905961 1.2589999
-0.3676883 -0.1582929 1.431
-0.3676883 -0.1682642 1.431
-0.36798361 0.046138618 1.2920001
-0.36798361 0.47826609 1.2920001
-0.36803499 0.32907861 1.177
-0.36806369 0.30153331 1.232
-0.36814639 0.1440573 1.081
-0.3683233 -0.47631329 2.214
-0.3684226 -0.23224001 1.396
-0.36852449 0.062704161 1.263
-0.36870569 0.46348259 1.327
-0.3690314 0.18224891 1.041
-0.3690314 0.1895026 1.041
-0.3690863 0.1190918 1.13
-0.36921081 0.4475643 1.363
-0.36923 -0.1489436 1.437
-0.3692857 0.099779151 1.181
-0.36940771 0.27225459 1.2970001
-0.36947301 -0.22410659 2.3180001
-0.36947301 -0.2402584 2.3180001
-0.36956969 -0.3914701 3.1429999
-0.36957401 -0.33041391 2.8099999
-0.36957401 -0.38915411 2.8099999
-0.36977091 0.1492058 1.064
-0.3699834 0.4870528 1.268
-0.37000611 -0.223469 1.402
-0.37000611 0.001221142 1.402
-0.37000611 0.43106309 1.402
-0.37021601 -0.060627699 1.4809999
-0.37021601 -0.070947297 1.4809999
-0.37044939 0.1611045 1.045
-0.37044939 0.1975123 1.045
-0.37065229 -0.46380061 2.2279999
-0.37077159 -0.018852791 1.443
-0.37077159 -0.28027821 1.443
-0.37101209 -0.55768478 2.6789999
-0.37112179 0.1061793 1.161
-0.37114531 0.085648917 1.214
-0.37114531 0.314046 1.214
-0.37116799 -0.28810939 2.98
-0.37144229 0.28495729 1.273
-0.3714841 0.029113179 1.337
-0.3714841 0.4576591 1.337
-0.37155211 0.1377878 1.091
-0.37158951 -0.1949925 1.408
-0.37158951 -0.2048035 1.408
-0.37158951 -0.21461441 1.408
-0.37158951 -0.2636691 1.408
-0.37171581 -0.04015049 1.487
-0.37171581 -0.050511912 1.487
-0.37178731 0.3241488 1.189
-0.3719475 0.070485681 1.245
-0.3719475 0.172978 1.029
-0.3719475 0.29603979 1.245
-0.37202331 -0.20939019 2.3340001
-0.37219051 0.01077079 1.374
-0.37228981 0.12539271 1.1160001
-0.37231329 -0.1198975 1.449
-0.37231329 -0.12999409 1.449
-0.37231329 -0.14009079 1.449
-0.3726095 0.05450109 1.277
-0.37297961 -0.35087711 3.1719999
-0.37297961 -0.37297961 3.1719999
-0.37303191 0.1662913 1.0319999
-0.37303799 0.092480168 1.193
-0.37314779 -0.37314779 2.243
-0.37314779 -0.38877699 2.243
-0.37314779 -0.40440619 2.243
-0.37314779 -0.42003539 2.243
-0.37314779 -0.43566471 2.243
-0.37314779 -0.45129389 2.243
-0.37314779 -0.54506922 2.243
-0.373173 -0.18597069 1.414
-0.373173 0.4249 1.414
-0.37339509 0.4761644 1.311
-0.37363991 0.15514781 1.054
-0.3736791 0.33498749 1.169
-0.3736791 0.34313309 1.169
-0.3738158 0.44353059 1.38
-0.37389681 0.30785239 1.223
-0.37392041 -0.54324281 2.7
-0.37398559 0.1126943 1.145
-0.37406841 0.48349729 1.2819999
-0.37411189 -0.1103313 1.456
-0.3742626 0.45169619 1.347
-0.37475649 -0.17686529 1.42
-0.37481919 0.037825789 1.316
-0.37481919 0.26707301 1.316
-0.37495771 0.099103257 1.173
-0.37495771 0.32796031 1.173
-0.37511969 0.078016348 1.227
-0.3751702 -0.2400607 1.385
-0.3751702 -0.24971139 1.385
-0.3751702 0.43548691 1.385
-0.37520069 0.1817237 1.038
-0.37547681 -0.34402329 2.257
-0.37547681 -0.35975 2.257
-0.37552729 0.27912331 1.2869999
-0.37553951 0.31905171 1.201
-0.37565359 -0.1005988 1.462
-0.3756789 0.1440573 1.081
-0.37575549 -0.3160328 2.8570001
-0.37592971 0.02003387 1.353
-0.37607601 -0.0086882254 1.425
-0.37607601 -0.1675586 1.425
-0.37613001 0.2905961 1.2589999
-0.37624329 0.47059181 1.321
-0.37628511 0.16048791 1.041
-0.37628511 0.1895026 1.041
-0.37628511 0.1967563 1.041
-0.37628511 0.20400999 1.041
-0.37631989 0.1318564 1.105
-0.3764706 -0.4824121 2.1719999
-0.3764706 -0.49754661 2.1719999
-0.3764706 -0.51268113 2.1719999
-0.37664831 0.30153331 1.232
-0.3767955 -0.23140819 1.391
-0.37682861 -0.52850813 2.721
-0.37698621 0.046138618 1.2920001
-0.37698621 0.47826609 1.2920001
-0.3771953 -0.029408449 1.4680001
-0.3771953 -0.090782598 1.4680001
-0.37732509 0.062704161 1.263
-0.3776595 -0.1483217 1.431
-0.3776595 -0.1582929 1.431
-0.3779051 0.1058134 1.1569999
-0.37797219 -0.31464699 2.2720001
-0.37797219 -0.33047831 2.2720001
-0.3781499 -0.2225126 1.396
-0.3782483 0.14962649 1.067
-0.3782945 0.1195134 1.1339999
-0.37835369 0.085366718 1.21
-0.37844521 0.27225459 1.2970001
-0.37844521 0.4710795 1.2970001
-0.37870821 0.4475643 1.363
-0.37873691 -0.08088281 1.474
-0.3787936 0.32305819 1.1849999
-0.37881881 0.4870528 1.268
-0.37889719 -0.4702895 2.1860001
-0.378912 -0.2584632 2.881
-0.378912 -0.2986128 2.881
-0.37909409 0.070202596 1.24
-0.37915409 0.1377878 1.091
-0.3792116 0.34078491 1.161
-0.37924299 -0.1389306 1.437
-0.37937629 0.465229 1.332
-0.37960449 0.314046 1.214
-0.3797752 -0.1843925 1.402
-0.3797752 -0.19416159 1.402
-0.3797752 -0.20393071 1.402
-0.3797752 -0.21369991 1.402
-0.3797752 0.001221142 1.402
-0.3797752 0.43106309 1.402
-0.3798753 -0.4945547 2.743
-0.3798753 -0.51366788 2.743
-0.37989971 0.15470619 1.051
-0.3800661 0.12539271 1.1160001
-0.38022289 0.1662913 1.0319999
-0.38022289 0.1734823 1.0319999
-0.38031259 0.054330371 1.273
-0.38031259 0.28495729 1.273
-0.3803753 0.01073159 1.369
-0.38046759 -0.2689169 2.2869999
-0.38046759 -0.28485271 2.2869999
-0.38046759 -0.30078861 2.2869999
-0.38046759 -0.57169741 2.2869999
-0.3805356 -0.039988481 1.4809999
-0.3805356 -0.05030809 1.4809999
-0.3805356 -0.060627699 1.4809999
-0.3805356 -0.070947297 1.4809999
-0.3808004 0.029113179 1.337
-0.3808004 0.4576591 1.337
-0.3808265 -0.119401 1.443
-0.3808265 -0.12945589 1.443
-0.3808265 -0.28027821 1.443
-0.38096321 0.1123991 1.142
-0.38113219 -0.31716591 3.0599999
-0.38135079 0.092480168 1.193
-0.3814005 -0.1753706 1.408
-0.3814005 -0.2636691 1.408
-0.3814005 0.42309701 1.408
-0.38182461 0.33498749 1.169
-0.3818455 0.29699099 1.249
-0.38206851 -0.28085831 2.905
-0.38238379 -0.59969479 2.3989999
-0.38240999 -0.01893119 1.449
-0.38241869 0.30785239 1.223
-0.3824335 0.1600254 1.038
-0.3824335 0.1817237 1.038
-0.3824335 0.1889565 1.038
-0.38262951 0.31798911 1.197
-0.38292211 -0.47925481 2.7650001
-0.38312939 -0.2387037 2.303
-0.38312939 -0.254751 2.303
-0.38313109 0.099103257 1.173
-0.38321131 0.1440573 1.081
-0.38343161 0.44353059 1.38
-0.3835144 0.1487851 1.061
-0.38353881 0.20400999 1.041
-0.38366941 0.078016348 1.227
-0.3836799 -0.45188969 3.263
-0.3836799 -0.47462621 3.263
-0.38375041 -0.38375041 2.214
-0.38375041 -0.39917761 2.214
-0.38375041 -0.41460481 2.214
-0.38375041 -0.4300319 2.214
-0.38375041 -0.44545901 2.214
-0.38375041 -0.46088621 2.214
-0.38375041 -0.53802198 2.214
-0.38390809 0.084731758 1.201
-0.3839891 0.037825789 1.316
-0.3839891 0.26707301 1.316
-0.38401961 0.1318564 1.105
-0.38425729 -0.1001859 1.456
-0.38425729 -0.1103313 1.456
-0.38443771 0.32907861 1.177
-0.38449511 0.27912331 1.2869999
-0.38449511 0.48538309 1.2869999
-0.38465101 -0.0086577404 1.42
-0.38465101 -0.1669707 1.42
-0.38482091 -0.23040999 1.385
-0.38482091 -0.2400607 1.385
-0.38482091 -0.24971139 1.385
-0.38501251 0.1975123 1.045
-0.38535741 0.02003387 1.353
-0.38535741 0.45370829 1.353
-0.38544801 0.47059181 1.321
-0.3858408 -0.029288249 1.462
-0.3858408 -0.080224343 1.462
-0.3858408 -0.090411551 1.462
-0.38596711 0.1058134 1.1569999
-0.38596889 -0.3471292 2.7869999
-0.38596889 -0.36654899 2.7869999
-0.38596889 -0.40538871 2.7869999
-0.38596889 -0.4248085 2.7869999
-0.38596889 -0.44422829 2.7869999
-0.38596889 -0.46364811 2.7869999
-0.38598889 0.046138618 1.2920001
-0.3860054 -0.1377704 1.425
-0.3860054 -0.1476998 1.425
-0.3860054 -0.15762921 1.425
-0.3860054 -0.27678201 1.425
-0.38612571 0.062704161 1.263
-0.38612571 0.2915194 1.263
-0.386177 -0.3551276 2.2279999
-0.386177 -0.37065229 2.2279999
-0.38648361 0.069976144 1.2359999
-0.38648361 0.3025122 1.2359999
-0.38648799 -0.2120232 1.391
-0.38648799 -0.2217157 1.391
-0.38648799 0.43737349 1.391
-0.38675621 0.1377878 1.091
-0.386785 0.31301129 1.21
-0.3870506 0.32305819 1.1849999
-0.38719869 0.46348259 1.327
-0.38722309 0.15470619 1.051
-0.3873015 0.34078491 1.161
-0.3874138 0.1662913 1.0319999
-0.3874138 0.1734823 1.0319999
-0.3874827 0.27225459 1.2970001
-0.3874827 0.4710795 1.2970001
-0.3874827 0.48011699 1.2970001
-0.38755849 0.119935 1.138
-0.3876307 -0.1184081 1.431
-0.3876307 -0.1283793 1.431
-0.38765419 0.4870528 1.268
-0.3878032 -0.62514728 2.4330001
-0.38784239 0.12539271 1.1160001
-0.3878772 -0.203058 1.396
-0.38820559 0.01068456 1.363
-0.38828659 -0.2256535 2.3340001
-0.38835719 0.092170097 1.189
-0.38877699 -0.2950016 2.243
-0.38877699 -0.32626009 2.243
-0.38877699 -0.34188929 2.243
-0.38892069 0.1123991 1.142
-0.38900781 -0.070611984 1.474
-0.38915411 -0.33041391 2.8099999
-0.3891829 0.054330371 1.273
-0.3891829 0.28495729 1.273
-0.389256 -0.018774411 1.437
-0.38954431 -0.1843925 1.402
-0.38954431 -0.19416159 1.402
-0.38954431 0.001221142 1.402
-0.38954431 0.421294 1.402
-0.38954431 0.43106309 1.402
-0.38966361 0.31692639 1.193
-0.38966629 0.1600254 1.038
-0.38966629 0.1817237 1.038
-0.38966629 0.1889565 1.038
-0.38967931 -0.5390175 2.6789999
-0.38991451 0.44953439 1.369
-0.3899703 0.33498749 1.169
-0.3900556 -0.69318449 2.559
-0.3901166 0.029113179 1.337
-0.39054859 0.29699099 1.249
-0.3907437 0.1440573 1.081
-0.39085519 -0.039988481 1.4809999
-0.39085519 -0.05030809 1.4809999
-0.39085519 -0.060627699 1.4809999
-0.3908813 -0.1093462 1.443
-0.39090741 0.1487851 1.061
-0.39094049 0.077762023 1.223
-0.39094049 0.30785239 1.223
-0.39094841 -0.2108255 2.3499999
-0.39120361 -0.28111619 2.257
-0.39120361 -0.31256971 2.257
-0.39120361 -0.56419808 2.257
-0.39121139 -0.1753706 1.408
-0.39121139 -0.2636691 1.408
-0.39130461 0.099103257 1.173
-0.39157549 0.4593707 1.342
-0.39160511 -0.46727759 2.1719999
-0.39160511 -0.4824121 2.1719999
-0.39160511 -0.49754661 2.1719999
-0.39160511 -0.51268113 2.1719999
-0.39171919 0.1318564 1.105
-0.39193431 0.48349729 1.2819999
-0.39221919 0.30030951 1.227
-0.39227659 0.084731758 1.201
-0.39229399 0.1975123 1.045
-0.39229399 0.2047939 1.045
-0.39233929 -0.39233929 2.8329999
-0.3925066 -0.099704251 1.449
-0.39263901 0.32907861 1.177
-0.3927339 -0.52442908 2.7
-0.3928785 -0.008621159 1.414
-0.3928785 -0.1662652 1.414
-0.3929517 -0.68036783 2.5780001
-0.3930344 0.45169619 1.347
-0.39304751 -0.23919401 1.38
-0.39304751 0.44353059 1.38
-0.393159 0.037825789 1.316
-0.393159 0.26707301 1.316
-0.393159 0.46881059 1.316
-0.39327389 0.137409 1.0880001
-0.39345771 0.1658079 1.029
-0.39345771 0.172978 1.029
-0.3934629 0.27912331 1.2869999
-0.39367551 0.2905961 1.2589999
-0.39380351 -0.26715311 2.2720001
-0.39402911 0.33961079 1.1569999
-0.39409789 0.1195134 1.1339999
-0.39412931 -0.4550575 2.1860001
-0.39412931 -0.53121781 2.1860001
-0.39440271 -0.029168051 1.456
-0.39440271 -0.079895087 1.456
-0.39440271 -0.090040497 1.456
-0.39447159 -0.2111086 1.385
-0.39447159 -0.2207593 1.385
-0.39447159 -0.23040999 1.385
-0.39447159 -0.24971139 1.385
-0.39454561 -0.15707619 1.42
-0.39454651 0.15470619 1.051
-0.39478511 0.02003387 1.353
-0.39492619 0.062704161 1.263
-0.39499149 0.046138618 1.2920001
-0.39508209 -0.35087711 3.1719999
-0.39508209 -0.39508209 3.1719999
-0.39508209 -0.41718459 3.1719999
-0.39509609 0.069976144 1.2359999
-0.39530769 0.32305819 1.1849999
-0.3953914 0.1061793 1.161
-0.39561871 0.12539271 1.1160001
-0.39575189 0.18119849 1.035
-0.39578849 -0.50954813 2.721
-0.39578849 -0.56642789 2.721
-0.39593479 -0.127841 1.425
-0.39593479 -0.1377704 1.425
-0.39593479 -0.1476998 1.425
-0.39593479 -0.27678201 1.425
-0.39602801 -0.070037119 1.462
-0.39609161 -0.65582383 2.4849999
-0.39618051 0.43737349 1.391
-0.39627191 -0.61204302 2.382
-0.3963747 0.29485089 1.24
-0.3964034 -0.2370453 2.2869999
-0.3964034 -0.2529811 2.2869999
-0.3964453 0.46348259 1.327
-0.39648971 0.283838 1.268
-0.3965202 0.27225459 1.2970001
-0.3965202 0.48011699 1.2970001
-0.39652279 0.314046 1.214
-0.39664209 0.092170097 1.189
-0.39665341 -0.44264221 2.2
-0.39675361 0.3338412 1.165
-0.3968024 0.1435243 1.077
-0.39687809 0.1123991 1.142
-0.39688861 0.1310211 1.098
-0.39689901 0.1600254 1.038
-0.39689901 0.1889565 1.038
-0.3976019 -0.018696019 1.431
-0.3976019 -0.1184081 1.431
-0.39760461 -0.19333071 1.396
-0.39760461 -0.203058 1.396
-0.39760461 0.42921841 1.396
-0.39765331 -0.060095519 1.4680001
-0.39770299 0.4475643 1.363
-0.39774299 0.47253239 1.301
-0.39782929 0.077444099 1.2180001
-0.39797649 0.31692639 1.193
-0.39804611 0.1967563 1.041
-0.39805311 0.054330371 1.273
-0.39805311 0.48897329 1.273
-0.3988187 -0.44344181 3.2019999
-0.3988187 -0.46575329 3.2019999
-0.39917669 -0.2226564 2.303
-0.39917761 -0.39917761 2.214
-0.39917761 -0.41460481 2.214
-0.39917761 -0.4300319 2.214
-0.39926901 -0.1088916 1.437
-0.39927861 -0.039799482 1.474
-0.39927861 -0.050070308 1.474
-0.39931339 -0.1746233 1.402
-0.39931339 -0.1843925 1.402
-0.39931339 0.001221142 1.402
-0.3994267 0.1492058 1.064
-0.39943281 0.029113179 1.337
-0.3994624 0.30785239 1.223
-0.39947811 0.099103257 1.173
-0.39947811 0.32796031 1.173
-0.39957559 0.2047939 1.045
-0.40062779 0.172978 1.029
-0.40080029 0.4670293 1.311
-0.40086731 0.48349729 1.2819999
-0.40091261 0.01077079 1.374
-0.40091261 0.4416022 1.374
-0.40092659 0.4593707 1.342
-0.4009361 -0.099291392 1.443
-0.40102229 -0.1557487 1.408
-0.40102229 -0.16555969 1.408
-0.40102229 -0.2636691 1.408
-0.40102229 0.42309701 1.408
-0.40170169 -0.3551276 2.2279999
-0.40170169 -0.37065229 2.2279999
-0.40170169 -0.386177 2.2279999
-0.4017767 -0.59559852 2.3180001
-0.4017958 0.1662913 1.0319999
-0.40186989 0.15470619 1.051
-0.40194911 0.1249432 1.112
-0.4019604 0.1377878 1.091
-0.40199959 0.1195134 1.1339999
-0.40209109 0.1058134 1.1569999
